ply
format ascii 1.0
element vertex 670
property float x
property float y
property float z
property uchar red
property uchar green
property uchar blue
end_header
0.001176470541395247 0.07686274498701096 -0.00031372549710795283 30 30 30
0.03125 1.225000023841858 -0.004999999888241291 31 31 31
0.03750000149011612 1.225000023841858 -0.004999999888241291 33 33 33
0.04374999925494194 1.225000023841858 -0.004999999888241291 29 29 29
0.01568627543747425 0.07686274498701096 -0.00031372549710795283 31 31 31
0.01607843115925789 0.07686274498701096 -0.00031372549710795283 31 31 31
0.016470588743686676 0.07686274498701096 -0.00031372549710795283 31 31 31
0.016862744465470314 0.07686274498701096 -0.00031372549710795283 31 31 31
0.0172549020498991 0.07686274498701096 -0.00031372549710795283 31 31 31
0.01764705963432789 0.07686274498701096 -0.00031372549710795283 31 31 31
0.018039215356111526 0.07686274498701096 -0.00031372549710795283 31 31 31
0.018431372940540314 0.07686274498701096 -0.00031372549710795283 31 31 31
0.01882352866232395 0.07686274498701096 -0.00031372549710795283 31 31 31
0.01921568624675274 0.07686274498701096 -0.00031372549710795283 31 31 31
0.03960784152150154 0.07686274498701096 -0.00031372549710795283 161 161 161
0.03999999910593033 0.07686274498701096 -0.00031372549710795283 162 162 162
0.040392156690359116 0.07686274498701096 -0.00031372549710795283 162 162 162
0.0407843142747879 0.07686274498701096 -0.00031372549710795283 161 161 161
0.04117647185921669 0.07686274498701096 -0.00031372549710795283 161 161 161
0.04156862571835518 0.07686274498701096 -0.00031372549710795283 161 161 161
0.041960783302783966 0.07686274498701096 -0.00031372549710795283 161 161 161
0.04235294088721275 0.07686274498701096 -0.00031372549710795283 161 161 161
0.04274509847164154 0.07686274498701096 -0.00031372549710795283 161 161 161
0.04313725605607033 0.07686274498701096 -0.00031372549710795283 161 161 161
0.043529409915208817 0.07686274498701096 -0.00031372549710795283 161 161 161
0.043921567499637604 0.07686274498701096 -0.00031372549710795283 161 161 161
0.04431372508406639 0.07686274498701096 -0.00031372549710795283 161 161 161
0.04470588266849518 0.07686274498701096 -0.00031372549710795283 161 161 161
1.037500023841858 1.225000023841858 -0.004999999888241291 203 203 203
1.0437500476837158 1.225000023841858 -0.004999999888241291 203 203 203
1.0499999523162842 1.225000023841858 -0.004999999888241291 203 203 203
1.056249976158142 1.225000023841858 -0.004999999888241291 203 203 203
1.0625 1.225000023841858 -0.004999999888241291 203 203 203
1.068750023841858 1.225000023841858 -0.004999999888241291 204 204 204
1.0750000476837158 1.225000023841858 -0.004999999888241291 204 204 204
1.0812499523162842 1.225000023841858 -0.004999999888241291 204 204 204
1.087499976158142 1.225000023841858 -0.004999999888241291 204 204 204
1.09375 1.225000023841858 -0.004999999888241291 204 204 204
1.100000023841858 1.225000023841858 -0.004999999888241291 204 204 204
-1.100000023841858 1.21875 -0.004999999888241291 64 64 64
-1.09375 1.21875 -0.004999999888241291 64 64 64
-1.087499976158142 1.21875 -0.004999999888241291 64 64 64
-1.0812499523162842 1.21875 -0.004999999888241291 64 64 64
-1.0750000476837158 1.21875 -0.004999999888241291 64 64 64
-0.800000011920929 1.21875 -0.004999999888241291 176 176 176
-0.03607843071222305 0.07647059112787247 -0.00031372549710795283 194 194 194
-0.029411764815449715 0.07647059112787247 -0.00031372549710795283 194 194 194
-0.02674897201359272 0.08024691045284271 -0.00032921810634434223 187 187 187
-0.2142857164144516 0.6964285969734192 -0.0028571428265422583 186 186 186
0.001176470541395247 0.07647059112787247 -0.00031372549710795283 29 29 29
0.03125 1.21875 -0.004999999888241291 32 32 32
0.03750000149011612 1.21875 -0.004999999888241291 33 33 33
0.04374999925494194 1.21875 -0.004999999888241291 29 29 29
0.01568627543747425 0.07647059112787247 -0.00031372549710795283 31 31 31
0.01607843115925789 0.07647059112787247 -0.00031372549710795283 31 31 31
0.016862744465470314 0.07647059112787247 -0.00031372549710795283 31 31 31
0.0172549020498991 0.07647059112787247 -0.00031372549710795283 31 31 31
0.01764705963432789 0.07647059112787247 -0.00031372549710795283 31 31 31
0.018039215356111526 0.07647059112787247 -0.00031372549710795283 31 31 31
0.018431372940540314 0.07647059112787247 -0.00031372549710795283 31 31 31
0.01882352866232395 0.07647059112787247 -0.00031372549710795283 31 31 31
0.01921568624675274 0.07647059112787247 -0.00031372549710795283 31 31 31
0.040392156690359116 0.07647059112787247 -0.00031372549710795283 162 162 162
0.0407843142747879 0.07647059112787247 -0.00031372549710795283 161 161 161
0.04117647185921669 0.07647059112787247 -0.00031372549710795283 161 161 161
0.04156862571835518 0.07647059112787247 -0.00031372549710795283 161 161 161
0.041960783302783966 0.07647059112787247 -0.00031372549710795283 161 161 161
0.04235294088721275 0.07647059112787247 -0.00031372549710795283 161 161 161
0.04274509847164154 0.07647059112787247 -0.00031372549710795283 161 161 161
0.04313725605607033 0.07647059112787247 -0.00031372549710795283 161 161 161
0.043529409915208817 0.07647059112787247 -0.00031372549710795283 161 161 161
0.043921567499637604 0.07647059112787247 -0.00031372549710795283 161 161 161
0.04431372508406639 0.07647059112787247 -0.00031372549710795283 161 161 161
0.04470588266849518 0.07647059112787247 -0.00031372549710795283 161 161 161
0.04588235169649124 0.07647059112787247 -0.00031372549710795283 161 161 161
1.037500023841858 1.21875 -0.004999999888241291 203 203 203
1.0437500476837158 1.21875 -0.004999999888241291 203 203 203
1.0499999523162842 1.21875 -0.004999999888241291 203 203 203
1.056249976158142 1.21875 -0.004999999888241291 203 203 203
1.0625 1.21875 -0.004999999888241291 203 203 203
1.068750023841858 1.21875 -0.004999999888241291 204 204 204
1.0750000476837158 1.21875 -0.004999999888241291 204 204 204
1.0812499523162842 1.21875 -0.004999999888241291 204 204 204
1.087499976158142 1.21875 -0.004999999888241291 204 204 204
1.09375 1.21875 -0.004999999888241291 204 204 204
1.100000023841858 1.21875 -0.004999999888241291 204 204 204
-1.100000023841858 1.212499976158142 -0.004999999888241291 64 64 64
-1.09375 1.212499976158142 -0.004999999888241291 64 64 64
-1.087499976158142 1.212499976158142 -0.004999999888241291 64 64 64
-1.0812499523162842 1.212499976158142 -0.004999999888241291 64 64 64
-1.0750000476837158 1.212499976158142 -0.004999999888241291 64 64 64
-0.05215686187148094 0.07607842981815338 -0.00031372549710795283 177 177 177
-0.800000011920929 1.212499976158142 -0.004999999888241291 174 174 174
-0.03647058829665184 0.07607842981815338 -0.00031372549710795283 194 194 194
-0.03607843071222305 0.07607842981815338 -0.00031372549710795283 194 194 194
-0.029803922399878502 0.07607842981815338 -0.00031372549710795283 194 194 194
-0.029411764815449715 0.07607842981815338 -0.00031372549710795283 194 194 194
-0.029019607231020927 0.07607842981815338 -0.00031372549710795283 194 194 194
-0.02753036469221115 0.07854250818490982 -0.0003238866338506341 195 195 195
-0.028270041570067406 0.08185654133558273 -0.0003375527448952198 194 194 194
-0.027272727340459824 0.08016528934240341 -0.00033057850669138134 191 191 191
0.001176470541395247 0.07607842981815338 -0.00031372549710795283 29 29 29
0.03125 1.212499976158142 -0.004999999888241291 32 32 32
0.03750000149011612 1.212499976158142 -0.004999999888241291 33 33 33
0.04374999925494194 1.212499976158142 -0.004999999888241291 28 28 28
0.01568627543747425 0.07607842981815338 -0.00031372549710795283 31 31 31
0.01607843115925789 0.07607842981815338 -0.00031372549710795283 31 31 31
0.016862744465470314 0.07607842981815338 -0.00031372549710795283 31 31 31
0.0172549020498991 0.07607842981815338 -0.00031372549710795283 31 31 31
0.01764705963432789 0.07607842981815338 -0.00031372549710795283 31 31 31
0.018039215356111526 0.07607842981815338 -0.00031372549710795283 31 31 31
0.018431372940540314 0.07607842981815338 -0.00031372549710795283 31 31 31
0.01882352866232395 0.07607842981815338 -0.00031372549710795283 31 31 31
0.01921568624675274 0.07607842981815338 -0.00031372549710795283 31 31 31
0.40625 1.212499976158142 -0.004999999888241291 75 75 75
0.4124999940395355 1.212499976158142 -0.004999999888241291 75 75 75
0.41874998807907104 1.212499976158142 -0.004999999888241291 75 75 75
0.42500001192092896 1.212499976158142 -0.004999999888241291 75 75 75
0.0407843142747879 0.07607842981815338 -0.00031372549710795283 161 161 161
0.04117647185921669 0.07607842981815338 -0.00031372549710795283 161 161 161
0.04156862571835518 0.07607842981815338 -0.00031372549710795283 161 161 161
0.041960783302783966 0.07607842981815338 -0.00031372549710795283 161 161 161
0.04235294088721275 0.07607842981815338 -0.00031372549710795283 161 161 161
0.04274509847164154 0.07607842981815338 -0.00031372549710795283 161 161 161
0.04313725605607033 0.07607842981815338 -0.00031372549710795283 161 161 161
0.043529409915208817 0.07607842981815338 -0.00031372549710795283 161 161 161
0.043921567499637604 0.07607842981815338 -0.00031372549710795283 161 161 161
0.04431372508406639 0.07607842981815338 -0.00031372549710795283 161 161 161
0.04470588266849518 0.07607842981815338 -0.00031372549710795283 161 161 161
0.045098040252923965 0.07607842981815338 -0.00031372549710795283 161 161 161
0.04549019783735275 0.07607842981815338 -0.00031372549710795283 161 161 161
0.04588235169649124 0.07607842981815338 -0.00031372549710795283 161 161 161
1.0437500476837158 1.212499976158142 -0.004999999888241291 203 203 203
1.0499999523162842 1.212499976158142 -0.004999999888241291 203 203 203
1.056249976158142 1.212499976158142 -0.004999999888241291 203 203 203
1.0625 1.212499976158142 -0.004999999888241291 203 203 203
1.068750023841858 1.212499976158142 -0.004999999888241291 204 204 204
1.0750000476837158 1.212499976158142 -0.004999999888241291 204 204 204
1.0812499523162842 1.212499976158142 -0.004999999888241291 204 204 204
1.087499976158142 1.212499976158142 -0.004999999888241291 204 204 204
1.09375 1.212499976158142 -0.004999999888241291 204 204 204
1.100000023841858 1.212499976158142 -0.004999999888241291 204 204 204
-1.100000023841858 1.2062499523162842 -0.004999999888241291 64 64 64
-1.09375 1.2062499523162842 -0.004999999888241291 64 64 64
-1.087499976158142 1.2062499523162842 -0.004999999888241291 64 64 64
-1.0812499523162842 1.2062499523162842 -0.004999999888241291 64 64 64
-1.0750000476837158 1.2062499523162842 -0.004999999888241291 64 64 64
-1.068750023841858 1.2062499523162842 -0.004999999888241291 64 64 64
-0.05215686187148094 0.07568627595901489 -0.00031372549710795283 175 175 175
-0.8062499761581421 1.2062499523162842 -0.004999999888241291 176 176 176
-0.800000011920929 1.2062499523162842 -0.004999999888241291 177 177 177
-0.793749988079071 1.2062499523162842 -0.004999999888241291 174 174 174
-0.03843137249350548 0.07568627595901489 -0.00031372549710795283 194 194 194
-0.03803921490907669 0.07568627595901489 -0.00031372549710795283 193 193 193
-0.0376470573246479 0.07568627595901489 -0.00031372549710795283 194 194 194
-0.037254903465509415 0.07568627595901489 -0.00031372549710795283 194 194 194
-0.03019607812166214 0.07568627595901489 -0.00031372549710795283 194 194 194
-0.029803922399878502 0.07568627595901489 -0.00031372549710795283 194 194 194
-0.029411764815449715 0.07568627595901489 -0.00031372549710795283 194 194 194
-0.029019607231020927 0.07568627595901489 -0.00031372549710795283 194 194 194
-0.027916666120290756 0.08041666448116302 -0.00033333332976326346 194 194 194
-0.2142857164144516 0.6892856955528259 -0.0028571428265422583 186 186 186
0.001176470541395247 0.07568627595901489 -0.00031372549710795283 28 28 28
0.03125 1.2062499523162842 -0.004999999888241291 32 32 32
0.03750000149011612 1.2062499523162842 -0.004999999888241291 33 33 33
0.04374999925494194 1.2062499523162842 -0.004999999888241291 28 28 28
0.01568627543747425 0.07568627595901489 -0.00031372549710795283 31 31 31
0.01764705963432789 0.07568627595901489 -0.00031372549710795283 31 31 31
0.018039215356111526 0.07568627595901489 -0.00031372549710795283 31 31 31
0.018431372940540314 0.07568627595901489 -0.00031372549710795283 31 31 31
0.01882352866232395 0.07568627595901489 -0.00031372549710795283 31 31 31
0.40625 1.2062499523162842 -0.004999999888241291 75 75 75
0.4124999940395355 1.2062499523162842 -0.004999999888241291 75 75 75
0.41874998807907104 1.2062499523162842 -0.004999999888241291 75 75 75
0.42500001192092896 1.2062499523162842 -0.004999999888241291 75 75 75
0.04117647185921669 0.07568627595901489 -0.00031372549710795283 161 161 161
0.04156862571835518 0.07568627595901489 -0.00031372549710795283 161 161 161
0.041960783302783966 0.07568627595901489 -0.00031372549710795283 161 161 161
0.04274509847164154 0.07568627595901489 -0.00031372549710795283 161 161 161
0.04313725605607033 0.07568627595901489 -0.00031372549710795283 161 161 161
0.043529409915208817 0.07568627595901489 -0.00031372549710795283 161 161 161
0.043921567499637604 0.07568627595901489 -0.00031372549710795283 161 161 161
0.04431372508406639 0.07568627595901489 -0.00031372549710795283 161 161 161
0.04470588266849518 0.07568627595901489 -0.00031372549710795283 161 161 161
0.045098040252923965 0.07568627595901489 -0.00031372549710795283 161 161 161
0.04549019783735275 0.07568627595901489 -0.00031372549710795283 161 161 161
0.04588235169649124 0.07568627595901489 -0.00031372549710795283 161 161 161
0.04627450928092003 0.07568627595901489 -0.00031372549710795283 161 161 161
0.046666666865348816 0.07568627595901489 -0.00031372549710795283 161 161 161
0.04784313589334488 0.07568627595901489 -0.00031372549710795283 161 161 161
1.0499999523162842 1.2062499523162842 -0.004999999888241291 203 203 203
1.056249976158142 1.2062499523162842 -0.004999999888241291 203 203 203
1.0625 1.2062499523162842 -0.004999999888241291 203 203 203
1.068750023841858 1.2062499523162842 -0.004999999888241291 204 204 204
1.0750000476837158 1.2062499523162842 -0.004999999888241291 204 204 204
1.0812499523162842 1.2062499523162842 -0.004999999888241291 204 204 204
1.087499976158142 1.2062499523162842 -0.004999999888241291 204 204 204
1.09375 1.2062499523162842 -0.004999999888241291 204 204 204
1.100000023841858 1.2062499523162842 -0.004999999888241291 204 204 204
-1.125 1.2000000476837158 -0.004999999888241291 64 64 64
-1.118749976158142 1.2000000476837158 -0.004999999888241291 64 64 64
-1.1124999523162842 1.2000000476837158 -0.004999999888241291 64 64 64
-1.1062500476837158 1.2000000476837158 -0.004999999888241291 64 64 64
-1.100000023841858 1.2000000476837158 -0.004999999888241291 64 64 64
-1.09375 1.2000000476837158 -0.004999999888241291 64 64 64
-1.087499976158142 1.2000000476837158 -0.004999999888241291 64 64 64
-1.0812499523162842 1.2000000476837158 -0.004999999888241291 64 64 64
-1.0750000476837158 1.2000000476837158 -0.004999999888241291 64 64 64
-1.068750023841858 1.2000000476837158 -0.004999999888241291 64 64 64
-0.05215686187148094 0.0752941146492958 -0.00031372549710795283 161 161 161
-0.051764704287052155 0.0752941146492958 -0.00031372549710795283 175 175 175
-0.8062499761581421 1.2000000476837158 -0.004999999888241291 171 171 171
-0.800000011920929 1.2000000476837158 -0.004999999888241291 172 172 172
-0.03843137249350548 0.0752941146492958 -0.00031372549710795283 194 194 194
-0.03803921490907669 0.0752941146492958 -0.00031372549710795283 194 194 194
-0.0376470573246479 0.0752941146492958 -0.00031372549710795283 194 194 194
-0.03019607812166214 0.0752941146492958 -0.00031372549710795283 194 194 194
-0.029803922399878502 0.0752941146492958 -0.00031372549710795283 194 194 194
-0.029411764815449715 0.0752941146492958 -0.00031372549710795283 194 194 194
-0.029019607231020927 0.0752941146492958 -0.00031372549710795283 194 194 194
-0.027843136340379715 0.0752941146492958 -0.00031372549710795283 195 195 195
-0.027685949578881264 0.07933884114027023 -0.00033057850669138134 193 193 193
-0.38749998807907104 1.2000000476837158 -0.004999999888241291 185 185 185
-0.2068965584039688 0.6620689630508423 -0.002758620772510767 181 181 181
0.001176470541395247 0.0752941146492958 -0.00031372549710795283 26 26 26
0.03125 1.2000000476837158 -0.004999999888241291 31 31 31
0.03750000149011612 1.2000000476837158 -0.004999999888241291 29 29 29
0.04374999925494194 1.2000000476837158 -0.004999999888241291 33 33 33
0.018039215356111526 0.0752941146492958 -0.00031372549710795283 31 31 31
0.018431372940540314 0.0752941146492958 -0.00031372549710795283 31 31 31
0.38749998807907104 1.2000000476837158 -0.004999999888241291 73 73 73
0.40625 1.2000000476837158 -0.004999999888241291 75 75 75
0.4124999940395355 1.2000000476837158 -0.004999999888241291 75 75 75
0.41874998807907104 1.2000000476837158 -0.004999999888241291 75 75 75
0.42500001192092896 1.2000000476837158 -0.004999999888241291 75 75 75
0.4312500059604645 1.2000000476837158 -0.004999999888241291 75 75 75
0.44999998807907104 1.2000000476837158 -0.004999999888241291 75 75 75
0.04156862571835518 0.0752941146492958 -0.00031372549710795283 161 161 161
0.04274509847164154 0.0752941146492958 -0.00031372549710795283 161 161 161
0.04313725605607033 0.0752941146492958 -0.00031372549710795283 161 161 161
0.043529409915208817 0.0752941146492958 -0.00031372549710795283 162 162 162
0.043921567499637604 0.0752941146492958 -0.00031372549710795283 161 161 161
0.04431372508406639 0.0752941146492958 -0.00031372549710795283 161 161 161
0.04470588266849518 0.0752941146492958 -0.00031372549710795283 161 161 161
0.045098040252923965 0.0752941146492958 -0.00031372549710795283 161 161 161
0.04549019783735275 0.0752941146492958 -0.00031372549710795283 161 161 161
0.04588235169649124 0.0752941146492958 -0.00031372549710795283 161 161 161
0.04627450928092003 0.0752941146492958 -0.00031372549710795283 161 161 161
0.046666666865348816 0.0752941146492958 -0.00031372549710795283 161 161 161
0.0470588244497776 0.0752941146492958 -0.00031372549710795283 161 161 161
0.04745098203420639 0.0752941146492958 -0.00031372549710795283 161 161 161
0.04784313589334488 0.0752941146492958 -0.00031372549710795283 161 161 161
0.048235293477773666 0.0752941146492958 -0.00031372549710795283 161 161 161
1.0499999523162842 1.2000000476837158 -0.004999999888241291 203 203 203
1.056249976158142 1.2000000476837158 -0.004999999888241291 203 203 203
1.0625 1.2000000476837158 -0.004999999888241291 203 203 203
1.068750023841858 1.2000000476837158 -0.004999999888241291 204 204 204
1.0750000476837158 1.2000000476837158 -0.004999999888241291 204 204 204
1.0812499523162842 1.2000000476837158 -0.004999999888241291 204 204 204
1.087499976158142 1.2000000476837158 -0.004999999888241291 204 204 204
1.09375 1.2000000476837158 -0.004999999888241291 204 204 204
1.100000023841858 1.2000000476837158 -0.004999999888241291 207 207 207
-1.1124999523162842 1.193750023841858 -0.004999999888241291 64 64 64
-1.1062500476837158 1.193750023841858 -0.004999999888241291 64 64 64
-1.100000023841858 1.193750023841858 -0.004999999888241291 64 64 64
-1.09375 1.193750023841858 -0.004999999888241291 64 64 64
-1.087499976158142 1.193750023841858 -0.004999999888241291 64 64 64
-1.0812499523162842 1.193750023841858 -0.004999999888241291 64 64 64
-1.0750000476837158 1.193750023841858 -0.004999999888241291 64 64 64
-0.05215686187148094 0.07490196079015732 -0.00031372549710795283 152 152 152
-0.8125 1.193750023841858 -0.004999999888241291 175 175 175
-0.8062499761581421 1.193750023841858 -0.004999999888241291 178 178 178
-0.800000011920929 1.193750023841858 -0.004999999888241291 175 175 175
-0.03843137249350548 0.07490196079015732 -0.00031372549710795283 194 194 194
-0.03803921490907669 0.07490196079015732 -0.00031372549710795283 194 194 194
-0.03019607812166214 0.07490196079015732 -0.00031372549710795283 194 194 194
-0.029803922399878502 0.07490196079015732 -0.00031372549710795283 194 194 194
-0.029411764815449715 0.07490196079015732 -0.00031372549710795283 194 194 194
-0.029019607231020927 0.07490196079015732 -0.00031372549710795283 194 194 194
-0.027843136340379715 0.07490196079015732 -0.00031372549710795283 195 195 195
-0.027450980618596077 0.07490196079015732 -0.00031372549710795283 195 195 195
-0.39375001192092896 1.193750023841858 -0.004999999888241291 191 191 191
-0.38749998807907104 1.193750023841858 -0.004999999888241291 183 183 183
-0.2562499940395355 1.193750023841858 -0.004999999888241291 0 0 0
0.001176470541395247 0.07490196079015732 -0.00031372549710795283 26 26 26
0.03125 1.193750023841858 -0.004999999888241291 31 31 31
0.03750000149011612 1.193750023841858 -0.004999999888241291 29 29 29
0.04374999925494194 1.193750023841858 -0.004999999888241291 32 32 32
0.018039215356111526 0.07490196079015732 -0.00031372549710795283 31 31 31
0.018431372940540314 0.07490196079015732 -0.00031372549710795283 31 31 31
0.38749998807907104 1.193750023841858 -0.004999999888241291 74 74 74
0.40625 1.193750023841858 -0.004999999888241291 75 75 75
0.4124999940395355 1.193750023841858 -0.004999999888241291 75 75 75
0.41874998807907104 1.193750023841858 -0.004999999888241291 75 75 75
0.42500001192092896 1.193750023841858 -0.004999999888241291 75 75 75
0.4312500059604645 1.193750023841858 -0.004999999888241291 75 75 75
0.44999998807907104 1.193750023841858 -0.004999999888241291 74 74 74
0.04274509847164154 0.07490196079015732 -0.00031372549710795283 161 161 161
0.04313725605607033 0.07490196079015732 -0.00031372549710795283 161 161 161
0.043529409915208817 0.07490196079015732 -0.00031372549710795283 162 162 162
0.043921567499637604 0.07490196079015732 -0.00031372549710795283 161 161 161
0.04431372508406639 0.07490196079015732 -0.00031372549710795283 161 161 161
0.04470588266849518 0.07490196079015732 -0.00031372549710795283 161 161 161
0.045098040252923965 0.07490196079015732 -0.00031372549710795283 161 161 161
0.04549019783735275 0.07490196079015732 -0.00031372549710795283 161 161 161
0.04588235169649124 0.07490196079015732 -0.00031372549710795283 161 161 161
0.04627450928092003 0.07490196079015732 -0.00031372549710795283 161 161 161
0.046666666865348816 0.07490196079015732 -0.00031372549710795283 161 161 161
0.0470588244497776 0.07490196079015732 -0.00031372549710795283 161 161 161
0.04745098203420639 0.07490196079015732 -0.00031372549710795283 161 161 161
0.04784313589334488 0.07490196079015732 -0.00031372549710795283 161 161 161
0.048235293477773666 0.07490196079015732 -0.00031372549710795283 161 161 161
1.0625 1.193750023841858 -0.004999999888241291 203 203 203
1.068750023841858 1.193750023841858 -0.004999999888241291 204 204 204
1.0750000476837158 1.193750023841858 -0.004999999888241291 204 204 204
1.0812499523162842 1.193750023841858 -0.004999999888241291 204 204 204
1.087499976158142 1.193750023841858 -0.004999999888241291 204 204 204
1.09375 1.193750023841858 -0.004999999888241291 204 204 204
1.100000023841858 1.193750023841858 -0.004999999888241291 204 204 204
-1.09375 1.1875 -0.004999999888241291 64 64 64
-1.087499976158142 1.1875 -0.004999999888241291 64 64 64
-1.0812499523162842 1.1875 -0.004999999888241291 64 64 64
-0.05215686187148094 0.07450980693101883 -0.00031372549710795283 147 147 147
-0.8125 1.1875 -0.004999999888241291 167 167 167
-0.8062499761581421 1.1875 -0.004999999888241291 176 176 176
-0.038823530077934265 0.07450980693101883 -0.00031372549710795283 194 194 194
-0.03843137249350548 0.07450980693101883 -0.00031372549710795283 194 194 194
-0.03019607812166214 0.07450980693101883 -0.00031372549710795283 194 194 194
-0.029803922399878502 0.07450980693101883 -0.00031372549710795283 194 194 194
-0.029411764815449715 0.07450980693101883 -0.00031372549710795283 194 194 194
-0.029019607231020927 0.07450980693101883 -0.00031372549710795283 194 194 194
-0.02862745150923729 0.07450980693101883 -0.00031372549710795283 194 194 194
-0.027843136340379715 0.07450980693101883 -0.00031372549710795283 195 195 195
-0.027450980618596077 0.07450980693101883 -0.00031372549710795283 195 195 195
-0.39375001192092896 1.1875 -0.004999999888241291 192 192 192
-0.38749998807907104 1.1875 -0.004999999888241291 188 188 188
-0.2562499940395355 1.1875 -0.004999999888241291 0 0 0
-0.25 1.1875 -0.004999999888241291 0 0 0
-0.16249999403953552 0.7916666865348816 -0.0033333334140479565 0 0 0
0.001176470541395247 0.07450980693101883 -0.00031372549710795283 25 25 25
0.03125 1.1875 -0.004999999888241291 31 31 31
0.03750000149011612 1.1875 -0.004999999888241291 29 29 29
0.04374999925494194 1.1875 -0.004999999888241291 32 32 32
0.018039215356111526 0.07450980693101883 -0.00031372549710795283 31 31 31
0.40625 1.1875 -0.004999999888241291 75 75 75
0.4124999940395355 1.1875 -0.004999999888241291 75 75 75
0.41874998807907104 1.1875 -0.004999999888241291 75 75 75
0.42500001192092896 1.1875 -0.004999999888241291 75 75 75
0.4312500059604645 1.1875 -0.004999999888241291 75 75 75
0.44999998807907104 1.1875 -0.004999999888241291 74 74 74
0.04313725605607033 0.07450980693101883 -0.00031372549710795283 161 161 161
0.043529409915208817 0.07450980693101883 -0.00031372549710795283 161 161 161
0.043921567499637604 0.07450980693101883 -0.00031372549710795283 161 161 161
0.04431372508406639 0.07450980693101883 -0.00031372549710795283 161 161 161
0.04470588266849518 0.07450980693101883 -0.00031372549710795283 161 161 161
0.045098040252923965 0.07450980693101883 -0.00031372549710795283 161 161 161
0.04549019783735275 0.07450980693101883 -0.00031372549710795283 161 161 161
0.04588235169649124 0.07450980693101883 -0.00031372549710795283 161 161 161
0.04627450928092003 0.07450980693101883 -0.00031372549710795283 161 161 161
0.046666666865348816 0.07450980693101883 -0.00031372549710795283 161 161 161
0.0470588244497776 0.07450980693101883 -0.00031372549710795283 161 161 161
0.04745098203420639 0.07450980693101883 -0.00031372549710795283 161 161 161
0.04784313589334488 0.07450980693101883 -0.00031372549710795283 161 161 161
0.048235293477773666 0.07450980693101883 -0.00031372549710795283 161 161 161
1.068750023841858 1.1875 -0.004999999888241291 204 204 204
1.0750000476837158 1.1875 -0.004999999888241291 204 204 204
1.0812499523162842 1.1875 -0.004999999888241291 204 204 204
1.087499976158142 1.1875 -0.004999999888241291 204 204 204
1.09375 1.1875 -0.004999999888241291 204 204 204
1.100000023841858 1.1875 -0.004999999888241291 201 201 201
0.6321428418159485 0.6785714030265808 -0.0028571428265422583 202 202 202
-0.05254901945590973 0.07411764562129974 -0.00031372549710795283 151 151 151
-0.05215686187148094 0.07411764562129974 -0.00031372549710795283 149 149 149
-0.8125 1.181249976158142 -0.004999999888241291 156 156 156
-0.8062499761581421 1.181249976158142 -0.004999999888241291 163 163 163
-0.038823530077934265 0.07411764562129974 -0.00031372549710795283 194 194 194
-0.6000000238418579 1.181249976158142 -0.004999999888241291 194 194 194
-0.3799999952316284 0.7559999823570251 -0.003200000151991844 194 194 194
-0.3032258152961731 0.6096774339675903 -0.0025806452613323927 194 194 194
-0.0540880486369133 0.11886792629957199 -0.0005031446344219148 194 194 194
-0.03019607812166214 0.07411764562129974 -0.00031372549710795283 194 194 194
-0.029803922399878502 0.07411764562129974 -0.00031372549710795283 194 194 194
-0.029411764815449715 0.07411764562129974 -0.00031372549710795283 194 194 194
-0.029019607231020927 0.07411764562129974 -0.00031372549710795283 194 194 194
-0.02862745150923729 0.07411764562129974 -0.00031372549710795283 194 194 194
-0.028235293924808502 0.07411764562129974 -0.00031372549710795283 194 194 194
-0.027843136340379715 0.07411764562129974 -0.00031372549710795283 195 195 195
-0.027450980618596077 0.07411764562129974 -0.00031372549710795283 195 195 195
-0.39375001192092896 1.181249976158142 -0.004999999888241291 182 182 182
-0.26875001192092896 1.181249976158142 -0.004999999888241291 0 0 0
-0.26249998807907104 1.181249976158142 -0.004999999888241291 0 0 0
-0.2562499940395355 1.181249976158142 -0.004999999888241291 0 0 0
-0.25 1.181249976158142 -0.004999999888241291 0 0 0
-0.16249999403953552 0.7875000238418579 -0.0033333334140479565 0 0 0
-0.0033333334140479565 0.10499999672174454 -0.0004444444493856281 0 0 0
0.0 0.08325991034507751 -0.00035242291050963104 0 0 0
0.001176470541395247 0.07411764562129974 -0.00031372549710795283 24 24 24
0.03125 1.181249976158142 -0.004999999888241291 31 31 31
0.03750000149011612 1.181249976158142 -0.004999999888241291 29 29 29
0.04374999925494194 1.181249976158142 -0.004999999888241291 32 32 32
0.4124999940395355 1.181249976158142 -0.004999999888241291 75 75 75
0.41874998807907104 1.181249976158142 -0.004999999888241291 75 75 75
0.42500001192092896 1.181249976158142 -0.004999999888241291 75 75 75
0.4312500059604645 1.181249976158142 -0.004999999888241291 75 75 75
0.4375 1.181249976158142 -0.004999999888241291 75 75 75
0.44999998807907104 1.181249976158142 -0.004999999888241291 73 73 73
0.043529409915208817 0.07411764562129974 -0.00031372549710795283 161 161 161
0.043921567499637604 0.07411764562129974 -0.00031372549710795283 161 161 161
0.04431372508406639 0.07411764562129974 -0.00031372549710795283 161 161 161
0.04470588266849518 0.07411764562129974 -0.00031372549710795283 161 161 161
0.045098040252923965 0.07411764562129974 -0.00031372549710795283 161 161 161
0.04549019783735275 0.07411764562129974 -0.00031372549710795283 161 161 161
0.04588235169649124 0.07411764562129974 -0.00031372549710795283 161 161 161
0.04627450928092003 0.07411764562129974 -0.00031372549710795283 161 161 161
0.046666666865348816 0.07411764562129974 -0.00031372549710795283 161 161 161
0.0470588244497776 0.07411764562129974 -0.00031372549710795283 161 161 161
0.04745098203420639 0.07411764562129974 -0.00031372549710795283 161 161 161
0.04784313589334488 0.07411764562129974 -0.00031372549710795283 161 161 161
0.048235293477773666 0.07411764562129974 -0.00031372549710795283 161 161 161
0.04901960864663124 0.07411764562129974 -0.00031372549710795283 161 161 161
1.0750000476837158 1.181249976158142 -0.004999999888241291 204 204 204
1.0812499523162842 1.181249976158142 -0.004999999888241291 204 204 204
1.087499976158142 1.181249976158142 -0.004999999888241291 204 204 204
1.09375 1.181249976158142 -0.004999999888241291 204 204 204
1.100000023841858 1.181249976158142 -0.004999999888241291 203 203 203
-0.0694117620587349 0.07372549176216125 -0.00031372549710795283 64 64 64
-0.05254901945590973 0.07372549176216125 -0.00031372549710795283 151 151 151
-0.8125 1.1749999523162842 -0.004999999888241291 150 150 150
-0.8062499761581421 1.1749999523162842 -0.004999999888241291 151 151 151
-0.0407843142747879 0.07372549176216125 -0.00031372549710795283 194 194 194
-0.040392156690359116 0.07372549176216125 -0.00031372549710795283 194 194 194
-0.03999999910593033 0.07372549176216125 -0.00031372549710795283 194 194 194
-0.03960784152150154 0.07372549176216125 -0.00031372549710795283 194 194 194
-0.03921568766236305 0.07372549176216125 -0.00031372549710795283 194 194 194
-0.606249988079071 1.1749999523162842 -0.004999999888241291 194 194 194
-0.6000000238418579 1.1749999523162842 -0.004999999888241291 194 194 194
-0.36538460850715637 0.7230769395828247 -0.003076923079788685 194 194 194
-0.11948052048683167 0.24415583908557892 -0.001038961112499237 194 194 194
-0.0989130437374115 0.20434781908988953 -0.0008695652359165251 194 194 194
-0.05878378450870514 0.1270270198583603 -0.0005405405536293983 194 194 194
-0.055844154208898544 0.12207791954278946 -0.0005194805562496185 194 194 194
-0.03896713629364967 0.08826290816068649 -0.0003755868528969586 194 194 194
-0.03019607812166214 0.07372549176216125 -0.00031372549710795283 194 194 194
-0.029803922399878502 0.07372549176216125 -0.00031372549710795283 194 194 194
-0.029411764815449715 0.07372549176216125 -0.00031372549710795283 194 194 194
-0.029019607231020927 0.07372549176216125 -0.00031372549710795283 194 194 194
-0.02862745150923729 0.07372549176216125 -0.00031372549710795283 194 194 194
-0.028235293924808502 0.07372549176216125 -0.00031372549710795283 194 194 194
-0.027843136340379715 0.07372549176216125 -0.00031372549710795283 194 194 194
-0.027450980618596077 0.07372549176216125 -0.00031372549710795283 195 195 195
-0.39375001192092896 1.1749999523162842 -0.004999999888241291 181 181 181
-0.2874999940395355 1.1749999523162842 -0.004999999888241291 0 0 0
-0.26875001192092896 1.1749999523162842 -0.004999999888241291 0 0 0
-0.26249998807907104 1.1749999523162842 -0.004999999888241291 0 0 0
-0.2562499940395355 1.1749999523162842 -0.004999999888241291 0 0 0
-0.25 1.1749999523162842 -0.004999999888241291 0 0 0
-0.16249999403953552 0.7833333611488342 -0.0033333334140479565 0 0 0
-0.0033333334140479565 0.10444444417953491 -0.0004444444493856281 0 0 0
0.0 0.0828193798661232 -0.00035242291050963104 1 1 1
0.03125 1.1749999523162842 -0.004999999888241291 31 31 31
0.03750000149011612 1.1749999523162842 -0.004999999888241291 29 29 29
0.04374999925494194 1.1749999523162842 -0.004999999888241291 31 31 31
0.41874998807907104 1.1749999523162842 -0.004999999888241291 75 75 75
0.42500001192092896 1.1749999523162842 -0.004999999888241291 75 75 75
0.4312500059604645 1.1749999523162842 -0.004999999888241291 75 75 75
0.4375 1.1749999523162842 -0.004999999888241291 75 75 75
0.44999998807907104 1.1749999523162842 -0.004999999888241291 73 73 73
0.043921567499637604 0.07372549176216125 -0.00031372549710795283 161 161 161
0.04431372508406639 0.07372549176216125 -0.00031372549710795283 161 161 161
0.04470588266849518 0.07372549176216125 -0.00031372549710795283 161 161 161
0.045098040252923965 0.07372549176216125 -0.00031372549710795283 161 161 161
0.04549019783735275 0.07372549176216125 -0.00031372549710795283 161 161 161
0.04588235169649124 0.07372549176216125 -0.00031372549710795283 161 161 161
0.04627450928092003 0.07372549176216125 -0.00031372549710795283 161 161 161
0.046666666865348816 0.07372549176216125 -0.00031372549710795283 161 161 161
0.0470588244497776 0.07372549176216125 -0.00031372549710795283 161 161 161
0.04745098203420639 0.07372549176216125 -0.00031372549710795283 161 161 161
0.04784313589334488 0.07372549176216125 -0.00031372549710795283 161 161 161
0.048235293477773666 0.07372549176216125 -0.00031372549710795283 161 161 161
0.048627451062202454 0.07372549176216125 -0.00031372549710795283 161 161 161
0.04901960864663124 0.07372549176216125 -0.00031372549710795283 161 161 161
0.04941176623106003 0.07372549176216125 -0.00031372549710795283 161 161 161
0.6000000238418579 0.7230769395828247 -0.003076923079788685 203 203 203
1.0812499523162842 1.1749999523162842 -0.004999999888241291 204 204 204
1.087499976158142 1.1749999523162842 -0.004999999888241291 204 204 204
1.09375 1.1749999523162842 -0.004999999888241291 204 204 204
-0.06980392336845398 0.07333333045244217 -0.00031372549710795283 64 64 64
-0.0694117620587349 0.07333333045244217 -0.00031372549710795283 64 64 64
-0.0690196081995964 0.07333333045244217 -0.00031372549710795283 64 64 64
-0.8187500238418579 1.1687500476837158 -0.004999999888241291 149 149 149
-0.8125 1.1687500476837158 -0.004999999888241291 149 149 149
-0.04117647185921669 0.07333333045244217 -0.00031372549710795283 194 194 194
-0.0407843142747879 0.07333333045244217 -0.00031372549710795283 194 194 194
-0.040392156690359116 0.07333333045244217 -0.00031372549710795283 194 194 194
-0.03999999910593033 0.07333333045244217 -0.00031372549710795283 194 194 194
-0.03960784152150154 0.07333333045244217 -0.00031372549710795283 194 194 194
-0.03921568766236305 0.07333333045244217 -0.00031372549710795283 194 194 194
-0.612500011920929 1.1687500476837158 -0.004999999888241291 194 194 194
-0.606249988079071 1.1687500476837158 -0.004999999888241291 194 194 194
-0.6000000238418579 1.1687500476837158 -0.004999999888241291 194 194 194
-0.35185185074806213 0.6925926208496094 -0.00296296295709908 194 194 194
-0.11645569652318954 0.236708864569664 -0.0010126582346856594 194 194 194
-0.09784946590662003 0.20107527077198029 -0.0008602150483056903 194 194 194
-0.06285714358091354 0.13357143104076385 -0.0005714285653084517 194 194 194
-0.05878378450870514 0.12635135650634766 -0.0005405405536293983 194 194 194
-0.039150942116975784 0.08820755034685135 -0.00037735849036835134 194 194 194
-0.03019607812166214 0.07333333045244217 -0.00031372549710795283 194 194 194
-0.029803922399878502 0.07333333045244217 -0.00031372549710795283 194 194 194
-0.029411764815449715 0.07333333045244217 -0.00031372549710795283 194 194 194
-0.029019607231020927 0.07333333045244217 -0.00031372549710795283 194 194 194
-0.02862745150923729 0.07333333045244217 -0.00031372549710795283 194 194 194
-0.028235293924808502 0.07333333045244217 -0.00031372549710795283 193 193 193
-0.027843136340379715 0.07333333045244217 -0.00031372549710795283 194 194 194
-0.027450980618596077 0.07333333045244217 -0.00031372549710795283 194 194 194
-0.02705882303416729 0.07333333045244217 -0.00031372549710795283 195 195 195
-0.02666666731238365 0.07333333045244217 -0.00031372549710795283 195 195 195
-0.29374998807907104 1.1687500476837158 -0.004999999888241291 0 0 0
-0.2874999940395355 1.1687500476837158 -0.004999999888241291 0 0 0
-0.26875001192092896 1.1687500476837158 -0.004999999888241291 0 0 0
-0.26249998807907104 1.1687500476837158 -0.004999999888241291 0 0 0
-0.2562499940395355 1.1687500476837158 -0.004999999888241291 0 0 0
-0.25 1.1687500476837158 -0.004999999888241291 0 0 0
-0.16249999403953552 0.7791666388511658 -0.0033333334140479565 0 0 0
-0.0033149172086268663 0.10331491380929947 -0.0004419889592099935 0 0 0
0.0 0.08237885683774948 -0.00035242291050963104 1 1 1
0.0007843137136660516 0.07333333045244217 -0.00031372549710795283 5 5 5
0.03125 1.1687500476837158 -0.004999999888241291 31 31 31
0.03750000149011612 1.1687500476837158 -0.004999999888241291 29 29 29
0.04374999925494194 1.1687500476837158 -0.004999999888241291 31 31 31
0.02549019642174244 0.07333333045244217 -0.00031372549710795283 75 75 75
0.4312500059604645 1.1687500476837158 -0.004999999888241291 75 75 75
0.44999998807907104 1.1687500476837158 -0.004999999888241291 73 73 73
0.04549019783735275 0.07333333045244217 -0.00031372549710795283 161 161 161
0.04588235169649124 0.07333333045244217 -0.00031372549710795283 161 161 161
0.04627450928092003 0.07333333045244217 -0.00031372549710795283 161 161 161
0.046666666865348816 0.07333333045244217 -0.00031372549710795283 161 161 161
0.0470588244497776 0.07333333045244217 -0.00031372549710795283 161 161 161
0.04745098203420639 0.07333333045244217 -0.00031372549710795283 161 161 161
0.04784313589334488 0.07333333045244217 -0.00031372549710795283 161 161 161
0.048235293477773666 0.07333333045244217 -0.00031372549710795283 161 161 161
0.048627451062202454 0.07333333045244217 -0.00031372549710795283 161 161 161
0.04901960864663124 0.07333333045244217 -0.00031372549710795283 161 161 161
0.04941176623106003 0.07333333045244217 -0.00031372549710795283 161 161 161
0.04980392009019852 0.07333333045244217 -0.00031372549710795283 161 161 161
0.96875 1.1687500476837158 -0.004999999888241291 203 203 203
0.6240000128746033 0.7480000257492065 -0.003200000151991844 203 203 203
1.0812499523162842 1.1687500476837158 -0.004999999888241291 204 204 204
1.087499976158142 1.1687500476837158 -0.004999999888241291 204 204 204
1.09375 1.1687500476837158 -0.004999999888241291 204 204 204
-0.06980392336845398 0.07294117659330368 -0.00031372549710795283 64 64 64
-0.0694117620587349 0.07294117659330368 -0.00031372549710795283 64 64 64
-0.0690196081995964 0.07294117659330368 -0.00031372549710795283 64 64 64
-0.05254901945590973 0.07294117659330368 -0.00031372549710795283 149 149 149
-0.04156862571835518 0.07294117659330368 -0.00031372549710795283 194 194 194
-0.04117647185921669 0.07294117659330368 -0.00031372549710795283 194 194 194
-0.0407843142747879 0.07294117659330368 -0.00031372549710795283 194 194 194
-0.040392156690359116 0.07294117659330368 -0.00031372549710795283 194 194 194
-0.03999999910593033 0.07294117659330368 -0.00031372549710795283 194 194 194
-0.03960784152150154 0.07294117659330368 -0.00031372549710795283 194 194 194
-0.6187499761581421 1.162500023841858 -0.004999999888241291 194 194 194
-0.612500011920929 1.162500023841858 -0.004999999888241291 194 194 194
-0.606249988079071 1.162500023841858 -0.004999999888241291 194 194 194
-0.6000000238418579 1.162500023841858 -0.004999999888241291 194 194 194
-0.296875 0.581250011920929 -0.0024999999441206455 194 194 194
-0.20888888835906982 0.41333332657814026 -0.0017777777975425124 194 194 194
-0.14761905372142792 0.29523810744285583 -0.0012698413338512182 194 194 194
-0.11358024924993515 0.22962963581085205 -0.0009876543190330267 194 194 194
-0.0938144326210022 0.1917525827884674 -0.0008247422520071268 194 194 194
-0.0624113492667675 0.1319148987531662 -0.0005673759151250124 194 194 194
-0.057999998331069946 0.12399999797344208 -0.0005333333392627537 194 194 194
-0.03896713629364967 0.08732394129037857 -0.0003755868528969586 194 194 194
-0.031578946858644485 0.07530364394187927 -0.0003238866338506341 194 194 194
-0.03019607812166214 0.07294117659330368 -0.00031372549710795283 194 194 194
-0.029803922399878502 0.07294117659330368 -0.00031372549710795283 194 194 194
-0.029411764815449715 0.07294117659330368 -0.00031372549710795283 194 194 194
-0.029019607231020927 0.07294117659330368 -0.00031372549710795283 194 194 194
-0.02862745150923729 0.07294117659330368 -0.00031372549710795283 194 194 194
-0.028235293924808502 0.07294117659330368 -0.00031372549710795283 193 193 193
-0.027843136340379715 0.07294117659330368 -0.00031372549710795283 193 193 193
-0.027450980618596077 0.07294117659330368 -0.00031372549710795283 194 194 194
-0.02705882303416729 0.07294117659330368 -0.00031372549710795283 195 195 195
-0.02666666731238365 0.07294117659330368 -0.00031372549710795283 195 195 195
-0.026274509727954865 0.07294117659330368 -0.00031372549710795283 194 194 194
-0.4000000059604645 1.162500023841858 -0.004999999888241291 190 190 190
-0.23846153914928436 0.7153846025466919 -0.003076923079788685 184 184 184
-0.29374998807907104 1.162500023841858 -0.004999999888241291 0 0 0
-0.2874999940395355 1.162500023841858 -0.004999999888241291 0 0 0
-0.28125 1.162500023841858 -0.004999999888241291 0 0 0
-0.2750000059604645 1.162500023841858 -0.004999999888241291 0 0 0
-0.26875001192092896 1.162500023841858 -0.004999999888241291 0 0 0
-0.26249998807907104 1.162500023841858 -0.004999999888241291 0 0 0
-0.2562499940395355 1.162500023841858 -0.004999999888241291 0 0 0
-0.25 1.162500023841858 -0.004999999888241291 0 0 0
-0.16249999403953552 0.7749999761581421 -0.0033333334140479565 0 0 0
-0.0033149172086268663 0.10276243090629578 -0.0004419889592099935 0 0 0
0.0 0.08157894760370255 -0.0003508772060740739 2 2 2
0.0007843137136660516 0.07294117659330368 -0.00031372549710795283 4 4 4
0.001176470541395247 0.07294117659330368 -0.00031372549710795283 20 20 20
0.03125 1.162500023841858 -0.004999999888241291 32 32 32
0.03750000149011612 1.162500023841858 -0.004999999888241291 29 29 29
0.04374999925494194 1.162500023841858 -0.004999999888241291 30 30 30
0.024313725531101227 0.07294117659330368 -0.00031372549710795283 73 73 73
0.024705883115530014 0.07294117659330368 -0.00031372549710795283 76 76 76
0.025098038837313652 0.07294117659330368 -0.00031372549710795283 75 75 75
0.02549019642174244 0.07294117659330368 -0.00031372549710795283 75 75 75
0.025882352143526077 0.07294117659330368 -0.00031372549710795283 75 75 75
0.026274509727954865 0.07294117659330368 -0.00031372549710795283 75 75 75
0.44999998807907104 1.162500023841858 -0.004999999888241291 73 73 73
0.04588235169649124 0.07294117659330368 -0.00031372549710795283 161 161 161
0.04627450928092003 0.07294117659330368 -0.00031372549710795283 161 161 161
0.046666666865348816 0.07294117659330368 -0.00031372549710795283 161 161 161
0.0470588244497776 0.07294117659330368 -0.00031372549710795283 161 161 161
0.04745098203420639 0.07294117659330368 -0.00031372549710795283 161 161 161
0.04784313589334488 0.07294117659330368 -0.00031372549710795283 161 161 161
0.048235293477773666 0.07294117659330368 -0.00031372549710795283 161 161 161
0.048627451062202454 0.07294117659330368 -0.00031372549710795283 161 161 161
0.04901960864663124 0.07294117659330368 -0.00031372549710795283 161 161 161
0.04941176623106003 0.07294117659330368 -0.00031372549710795283 161 161 161
0.04980392009019852 0.07294117659330368 -0.00031372549710795283 161 161 161
0.050196077674627304 0.07294117659330368 -0.00031372549710795283 161 161 161
0.05058823525905609 0.07294117659330368 -0.00031372549710795283 161 161 161
0.9624999761581421 1.162500023841858 -0.004999999888241291 203 203 203
0.96875 1.162500023841858 -0.004999999888241291 203 203 203
1.0812499523162842 1.162500023841858 -0.004999999888241291 204 204 204
1.087499976158142 1.162500023841858 -0.004999999888241291 204 204 204
1.09375 1.162500023841858 -0.004999999888241291 204 204 204
-0.10279329866170883 0.10335195809602737 -0.0004469273844733834 64 64 64
-0.09481865167617798 0.09585492312908173 -0.0004145077837165445 64 64 64
-0.06980392336845398 0.07254902273416519 -0.00031372549710795283 64 64 64
-0.0694117620587349 0.07254902273416519 -0.00031372549710795283 64 64 64
-0.0690196081995964 0.07254902273416519 -0.00031372549710795283 64 64 64
-0.04274509847164154 0.07254902273416519 -0.00031372549710795283 194 194 194
-0.04235294088721275 0.07254902273416519 -0.00031372549710795283 194 194 194
-0.041960783302783966 0.07254902273416519 -0.00031372549710795283 194 194 194
-0.04156862571835518 0.07254902273416519 -0.00031372549710795283 194 194 194
-0.04117647185921669 0.07254902273416519 -0.00031372549710795283 194 194 194
-0.0407843142747879 0.07254902273416519 -0.00031372549710795283 194 194 194
-0.040392156690359116 0.07254902273416519 -0.00031372549710795283 194 194 194
-0.03999999910593033 0.07254902273416519 -0.00031372549710795283 194 194 194
-0.625 1.15625 -0.004999999888241291 194 194 194
-0.6187499761581421 1.15625 -0.004999999888241291 194 194 194
-0.612500011920929 1.15625 -0.004999999888241291 194 194 194
-0.606249988079071 1.15625 -0.004999999888241291 194 194 194
-0.0615384615957737 0.12937062978744507 -0.0005594405811280012 194 194 194
-0.057999998331069946 0.12333333492279053 -0.0005333333392627537 194 194 194
-0.04097560793161392 0.09024390578269958 -0.0003902439202647656 194 194 194
-0.03896713629364967 0.08685445785522461 -0.0003755868528969586 194 194 194
-0.03196721151471138 0.07581967115402222 -0.00032786885276436806 194 194 194
-0.03019607812166214 0.07254902273416519 -0.00031372549710795283 194 194 194
-0.029803922399878502 0.07254902273416519 -0.00031372549710795283 194 194 194
-0.029411764815449715 0.07254902273416519 -0.00031372549710795283 194 194 194
-0.029019607231020927 0.07254902273416519 -0.00031372549710795283 194 194 194
-0.02862745150923729 0.07254902273416519 -0.00031372549710795283 194 194 194
-0.028235293924808502 0.07254902273416519 -0.00031372549710795283 193 193 193
-0.027843136340379715 0.07254902273416519 -0.00031372549710795283 193 193 193
-0.027450980618596077 0.07254902273416519 -0.00031372549710795283 194 194 194
-0.02705882303416729 0.07254902273416519 -0.00031372549710795283 195 195 195
-0.02666666731238365 0.07254902273416519 -0.00031372549710795283 195 195 195
-0.026274509727954865 0.07254902273416519 -0.00031372549710795283 195 195 195
-0.4000000059604645 1.15625 -0.004999999888241291 190 190 190
-0.29374998807907104 1.15625 -0.004999999888241291 0 0 0
-0.2874999940395355 1.15625 -0.004999999888241291 0 0 0
-0.28125 1.15625 -0.004999999888241291 0 0 0
-0.2750000059604645 1.15625 -0.004999999888241291 0 0 0
-0.26875001192092896 1.15625 -0.004999999888241291 0 0 0
-0.26249998807907104 1.15625 -0.004999999888241291 0 0 0
-0.2562499940395355 1.15625 -0.004999999888241291 0 0 0
-0.25 1.15625 -0.004999999888241291 0 0 0
-0.16249999403953552 0.7708333134651184 -0.0033333334140479565 0 0 0
-0.0033149172086268663 0.10220994800329208 -0.0004419889592099935 0 0 0
